47.65 7.75 2.0165359091055706
47.65 8.25 1.4597109357384201
47.65 9.75 1.8051554810854853
47.65 10.25 2.3538102156668366
47.65 10.75 1.519329737034532
47.65 11.25 1.482035974880846
47.65 12.25 1.8737354771755843
48.15 7.75 1.713165104804098
48.15 8.25 1.516627927812244
48.15 8.75 1.7273013240782642
48.15 9.25 1.7558337732077343
48.15 10.25 1.3855527690963703
48.15 12.75 1.768677565454139
48.65 7.75 2.2692851749770515
48.65 8.25 1.8708727923269364
48.65 9.25 2.2310366603143326
48.65 9.75 1.9695921904862694
48.65 10.75 1.8005370572774186
48.65 11.25 2.072346336913952
48.65 11.75 1.7206482827131255
48.65 12.25 2.02944281948502
48.65 12.75 1.9496115259521556
48.65 13.25 2.2855592781493783
49.15 6.75 1.9309153406774158
49.15 7.25 1.9542267595416352
49.15 7.75 2.290875472565535
49.15 8.25 2.529131780426471
49.15 9.75 2.4423140668706136
49.15 10.25 2.0160640393059657
49.15 11.75 1.7838864374360046
49.15 12.25 2.7808549321354024
49.65 6.25 1.3207080968534868
49.65 6.75 1.9483950530215992
49.65 7.25 1.8576928169446703
49.65 7.75 2.410990943540836
49.65 8.25 1.8763625246235722
49.65 8.75 1.8785580781744766
49.65 9.25 2.0777054319943424
49.65 9.75 2.194717483409468
49.65 10.25 1.8673210177082273
49.65 10.75 1.9680697014921407
49.65 11.25 2.1896600984181838
49.65 11.75 2.354938717461698
49.65 12.25 2.146012397772356
50.15 6.25 1.7586891312502346
50.15 6.75 1.787756876550615
50.15 7.25 1.5256328991491444
50.15 8.25 1.7500517327527285
50.15 8.75 2.292031029989341
50.15 10.25 1.7086610795828185
50.15 10.75 1.6712884588438026
50.15 11.25 1.4511344896901281
50.15 11.75 2.3033944825223784
50.15 12.25 1.886953598215615
50.65 6.75 1.9591116479926765
50.65 7.25 1.4804351301669154
50.65 7.75 2.030714930480524
50.65 8.25 1.545121998987744
50.65 8.75 1.7264125925227587
50.65 9.25 1.9952820442046773
50.65 9.75 1.6939995689983638
50.65 10.25 2.121279448743857
50.65 10.75 2.022377012459181
50.65 11.25 1.6542196125957922
50.65 11.75 2.2755191062497757
50.65 12.25 2.21789201209648
50.65 13.25 2.170491583529433
50.65 14.75 1.587555267346989
51.15 6.25 1.8794228341155748
51.15 6.75 1.5020740660199854
51.15 7.25 1.6336543860830908
51.15 8.25 1.6499337882296137
51.15 8.75 2.5691462418358455
51.15 9.25 1.7540417735089955
51.15 9.75 2.8616831290846703
51.15 10.25 2.144896620780453
51.15 10.75 2.080456106756447
51.15 11.25 2.109576730084542
51.15 11.75 1.7717812273043752
51.15 12.25 1.9876084484233898
51.15 13.25 2.5523363652406243
51.15 13.75 1.9610869679908078
51.15 14.75 2.035975909343213
51.65 6.25 1.8698153653053922
51.65 6.75 1.7865981295830373
51.65 8.75 1.7209861065681071
51.65 9.25 2.1518855225663973
51.65 9.75 1.5683171416204384
51.65 10.75 2.094655547783037
51.65 11.25 2.3086219565597816
51.65 12.25 2.5856288894156503
51.65 12.75 2.4375716182849505
51.65 13.75 2.4487578930300185
51.65 14.75 2.5086813095744738
52.15 8.75 1.4912132318932674
52.15 10.25 2.2320995366370147
52.15 10.75 2.596599798097966
52.15 12.25 2.001542475540046
52.15 13.75 2.6661732006857264
52.15 14.25 2.3176997597782822
52.65 7.75 1.6770745027307736
52.65 8.25 1.9630024727482827
52.65 8.75 2.0866617766957916
52.65 9.25 1.849775378021418
52.65 9.75 2.1244156875050706
52.65 11.25 2.452272339076824
52.65 12.75 2.128916568859445
52.65 13.25 2.1534637045358624
52.65 13.75 2.27201363391484
52.65 14.25 2.2953054764214453
53.15 7.25 2.021691049215187
53.15 7.75 1.6755605483535412
53.15 8.75 2.1237127819547705
53.15 9.25 1.7292060931221105
53.15 9.75 1.8577300853610446
53.15 10.75 2.323097183365771
53.15 11.25 2.4712284368122663
53.15 11.75 2.8693335020780832
53.15 12.25 2.271498329531365
53.15 13.25 2.036349484492515
53.15 13.75 2.2757506695060936
53.65 7.25 1.8634524678269706
53.65 8.75 1.9080313252058225
53.65 9.75 2.0682780845875266
53.65 10.75 2.2680095218400638
53.65 12.25 2.572590730087777
53.65 12.75 2.3819970549503875
53.65 14.25 2.457634301465472
54.15 7.75 1.5426219458234058
54.15 8.75 1.792046946599136
54.15 9.25 1.741570167197759
54.15 11.25 2.029999643019366
54.15 12.25 2.147943210876003
54.15 12.75 2.246908676698313
54.15 13.25 2.5109540825896044
54.15 13.75 1.325282719387742
54.65 9.75 1.9270650030234222
54.65 11.25 1.9610705986886714
54.65 13.25 2.2691357678241713
55.15 8.25 1.8121655397688752
